ply
format ascii 1.0
comment VCGLIB generated
element vertex 644
property float x
property float y
property float z
property float nx
property float ny
property float nz
property uchar red
property uchar green
property uchar blue
property uchar alpha
element face 0
property list uchar int vertex_indices
end_header
-0.106508 0.979111 0.162937 -0.0876424 0.982961 0.161574 255 255 255 255 
-0.305972 -0.226629 -0.922774 -0.299805 -0.238596 -0.923682 255 255 255 255 
-0.817631 -0.453618 -0.349832 -0.816727 -0.451743 -0.359007 255 255 255 255 
0.14045 0.96935 0.19146 0.141649 0.973024 0.182098 255 255 255 255 
0.846326 0.396056 -0.351379 0.847212 0.394024 -0.356337 255 255 255 255 
-0.361662 -0.679596 0.6361 -0.369305 -0.676726 0.636911 255 255 255 255 
-0.729131 -0.425488 -0.533103 -0.735219 -0.427202 -0.526263 255 255 255 255 
-0.490788 -0.170221 -0.852379 -0.481078 -0.169428 -0.86015 255 255 255 255 
-0.469024 -0.764221 0.438852 -0.472435 -0.766682 0.434746 255 255 255 255 
-0.899996 -0.426309 0.0764877 -0.894692 -0.440985 0.0711203 255 255 255 255 
-0.153173 -0.375687 -0.91284 -0.14766 -0.365646 -0.918967 255 255 255 255 
-0.453811 0.203261 -0.865301 -0.447789 0.205828 -0.870126 255 255 255 255 
-0.017288 -0.996494 0.0601987 -0.0197276 -0.997661 0.0654458 255 255 255 255 
0.119366 -0.120833 -0.983935 0.120268 -0.10781 -0.98687 255 255 255 255 
-0.997668 0.0414236 -0.00121558 -0.998943 0.0453695 0.00733089 255 255 255 255 
-0.803727 -0.0573604 0.591508 -0.811032 -0.0524 0.582651 255 255 255 255 
0.00359513 -0.653976 -0.754995 -0.013595 -0.665277 -0.746473 255 255 255 255 
-0.207732 0.0863858 -0.972962 -0.205079 0.0920321 -0.974409 255 255 255 255 
0.316346 -0.946314 -0.0507864 0.32394 -0.944772 -0.049681 255 255 255 255 
0.310682 -0.747241 -0.583892 0.312799 -0.758199 -0.572093 255 255 255 255 
-0.546086 0.0892333 0.831889 -0.526995 0.0760639 0.846458 255 255 255 255 
0.652558 0.0317878 -0.754608 0.64955 0.0291027 -0.759762 255 255 255 255 
-0.400657 -0.902311 -0.147215 -0.412724 -0.898751 -0.148004 255 255 255 255 
0.0219639 0.334265 -0.940476 0.0285792 0.339334 -0.940232 255 255 255 255 
0.300393 0.143469 0.941774 0.28604 0.139449 0.948016 255 255 255 255 
-0.0573872 -0.423046 0.903129 -0.0612451 -0.416966 0.906856 255 255 255 255 
0.204964 0.616682 0.758427 0.211215 0.606134 0.766805 255 255 255 255 
0.46733 -0.660456 0.584423 0.468497 -0.665458 0.581099 255 255 255 255 
0.102106 0.650457 0.750758 0.118252 0.650455 0.750283 255 255 255 255 
0.991463 -0.0728647 0.09227 0.993327 -0.0680913 0.0930873 255 255 255 255 
-0.25832 0.905057 0.333891 -0.264715 0.910028 0.319023 255 255 255 255 
-0.240597 0.702836 0.66704 -0.249079 0.718602 0.649285 255 255 255 255 
-0.553579 -0.423313 0.714995 -0.553377 -0.429706 0.713532 255 255 255 255 
0.174416 0.296352 -0.937548 0.173189 0.285934 -0.942469 255 255 255 255 
-0.952297 0.0705076 -0.291524 -0.957353 0.0719057 -0.279829 255 255 255 255 
-0.753543 -0.321408 -0.571152 -0.754416 -0.316955 -0.574801 255 255 255 255 
0.0239128 0.840458 0.537752 0.013949 0.842604 0.538354 255 255 255 255 
-0.706879 0.530608 0.464636 -0.693127 0.54201 0.475184 255 255 255 255 
-0.713375 0.696613 -0.0547826 -0.697433 0.713518 -0.0669231 255 255 255 255 
-0.958374 0.187666 0.209959 -0.964056 0.159069 0.21282 255 255 255 255 
-0.808966 0.536706 0.231938 -0.809333 0.537054 0.237809 255 255 255 255 
-0.103636 0.822464 0.556838 -0.107489 0.81893 0.563737 255 255 255 255 
-0.859918 0.368087 -0.349127 -0.855467 0.362186 -0.370132 255 255 255 255 
0.285272 0.728947 0.620045 0.287748 0.735935 0.612863 255 255 255 255 
-0.215096 0.789601 0.572631 -0.212354 0.791208 0.573494 255 255 255 255 
-0.530644 -0.829797 -0.164237 -0.520596 -0.838164 -0.162664 255 255 255 255 
-0.616195 0.594926 0.513746 -0.600426 0.607088 0.520512 255 255 255 255 
0.422935 -0.899926 -0.0907395 0.42529 -0.8986 -0.107918 255 255 255 255 
-0.213165 -0.284135 -0.932914 -0.218344 -0.28644 -0.932887 255 255 255 255 
-0.134333 -0.986541 0.079495 -0.13456 -0.987031 0.0875429 255 255 255 255 
0.20485 -0.746848 -0.630656 0.213049 -0.754113 -0.621227 255 255 255 255 
-0.24383 0.37302 0.893827 -0.259942 0.375594 0.889584 255 255 255 255 
0.091276 -0.672753 0.73282 0.0947184 -0.665992 0.739921 255 255 255 255 
-0.825803 0.462635 -0.316205 -0.815918 0.476711 -0.327146 255 255 255 255 
-0.697286 -0.194097 -0.687265 -0.707203 -0.200983 -0.677842 255 255 255 255 
-0.719878 -0.0810493 0.686879 -0.727986 -0.0934445 0.679195 255 255 255 255 
0.653335 0.442208 -0.612023 0.654404 0.44502 -0.61132 255 255 255 255 
-0.634092 -0.722448 0.269581 -0.611118 -0.737452 0.287573 255 255 255 255 
-0.198943 0.538817 0.816665 -0.207913 0.53736 0.817323 255 255 255 255 
-0.0681789 -0.917633 0.387815 -0.0586394 -0.925341 0.374574 255 255 255 255 
-0.507585 0.588849 -0.626598 -0.498762 0.584301 -0.640179 255 255 255 255 
0.672909 0.465148 0.573054 0.672394 0.459132 0.58059 255 255 255 255 
-0.443557 -0.882604 0.147104 -0.437718 -0.886047 0.152719 255 255 255 255 
-0.918208 0.0543203 -0.38885 -0.920587 0.057178 -0.386328 255 255 255 255 
-0.982144 -0.137676 0.11271 -0.98409 -0.135285 0.115175 255 255 255 255 
0.257397 0.89699 0.353642 0.252162 0.905117 0.342312 255 255 255 255 
-0.481522 0.870476 0.0908802 -0.485066 0.869868 0.0896687 255 255 255 255 
-0.264346 0.938026 0.217349 -0.248723 0.945378 0.210706 255 255 255 255 
0.51345 -0.796477 0.314739 0.507053 -0.805789 0.305945 255 255 255 255 
-0.121002 0.719019 -0.682086 -0.121318 0.73246 -0.669914 255 255 255 255 
0.0609322 -0.00666526 -0.996402 0.0692212 0.00835806 -0.997566 255 255 255 255 
0.411502 -0.301882 0.857775 0.426587 -0.298692 0.853702 255 255 255 255 
-0.108304 0.478183 -0.869622 -0.0998758 0.492356 -0.864645 255 255 255 255 
-0.850347 0.52171 -0.0328907 -0.851511 0.523466 -0.0302203 255 255 255 255 
-0.04226 0.964505 0.254747 -0.0483327 0.960385 0.274455 255 255 255 255 
-0.851873 -0.313825 0.416458 -0.846058 -0.306159 0.436409 255 255 255 255 
0.297527 -0.419366 -0.855928 0.295961 -0.426052 -0.854919 255 255 255 255 
-0.0247424 -0.522426 0.850073 -0.0127636 -0.526438 0.850117 255 255 255 255 
-0.246249 -0.566351 0.785108 -0.24329 -0.576939 0.779712 255 255 255 255 
0.928606 0.20928 -0.300798 0.935241 0.21015 -0.284888 255 255 255 255 
-0.544756 0.832476 -0.0833149 -0.561275 0.823558 -0.0819897 255 255 255 255 
0.786258 -0.458225 -0.410319 0.784215 -0.458185 -0.418418 255 255 255 255 
-0.312007 -0.754347 0.57463 -0.294396 -0.765053 0.572735 255 255 255 255 
-0.455583 0.887966 -0.0133173 -0.460876 0.887462 0.00220887 255 255 255 255 
0.835047 0.0767541 -0.541752 0.838327 0.0751642 -0.539961 255 255 255 255 
0.771479 -0.559323 0.299857 0.773697 -0.563091 0.290382 255 255 255 255 
-0.802721 -0.381182 -0.455421 -0.805227 -0.378219 -0.456684 255 255 255 255 
-0.214795 -0.561112 -0.797705 -0.20032 -0.561575 -0.802811 255 255 255 255 
0.627959 -0.770935 -0.0906679 0.612637 -0.78554 -0.0871978 255 255 255 255 
-0.612818 -0.206218 -0.761293 -0.624279 -0.20795 -0.753016 255 255 255 255 
-0.354892 0.520036 0.775353 -0.367383 0.529563 0.764587 255 255 255 255 
0.322683 -0.510097 0.795765 0.322461 -0.501349 0.802912 255 255 255 255 
0.740468 0.646823 -0.170303 0.740859 0.650148 -0.16863 255 255 255 255 
-0.395204 -0.917099 0.0246908 -0.4081 -0.912179 0.0372009 255 255 255 255 
-0.337048 -0.426389 -0.837252 -0.330041 -0.425086 -0.842837 255 255 255 255 
0.581468 -0.408527 -0.701854 0.586982 -0.397476 -0.705312 255 255 255 255 
-0.446199 -0.702637 0.552453 -0.465596 -0.695378 0.547421 255 255 255 255 
-0.539923 -0.116306 0.831786 -0.546341 -0.128995 0.82757 255 255 255 255 
0.698623 0.704651 0.108476 0.696307 0.708083 0.117367 255 255 255 255 
-0.341877 0.547863 -0.761295 -0.338463 0.557247 -0.758234 255 255 255 255 
0.731063 -0.450868 -0.508663 0.726762 -0.458393 -0.51156 255 255 255 255 
0.579244 0.531319 0.616288 0.586684 0.532154 0.610421 255 255 255 255 
0.551674 0.457019 0.694932 0.541102 0.471463 0.69637 255 255 255 255 
0.135986 -0.572243 0.807629 0.143122 -0.584522 0.798655 255 255 255 255 
0.318892 -0.667908 -0.671031 0.311583 -0.672463 -0.671349 255 255 255 255 
-0.922608 -0.344669 0.172438 -0.924823 -0.348454 0.152586 255 255 255 255 
0.205151 -0.923157 -0.320695 0.197544 -0.927782 -0.316538 255 255 255 255 
-0.195603 -0.215415 0.955528 -0.195714 -0.212906 0.957271 255 255 255 255 
-0.0709749 -0.916261 -0.389366 -0.0763234 -0.909649 -0.408304 255 255 255 255 
-0.112167 0.0815164 -0.988478 -0.118593 0.0784844 -0.989836 255 255 255 255 
0.865422 0.166213 -0.469583 0.86567 0.154734 -0.476101 255 255 255 255 
-0.29383 0.949889 -0.0880698 -0.303915 0.946908 -0.104885 255 255 255 255 
0.490599 0.850611 -0.180819 0.48117 0.854934 -0.193813 255 255 255 255 
-0.227449 0.189416 0.95359 -0.221395 0.181908 0.958067 255 255 255 255 
-0.694907 0.105147 -0.70932 -0.687774 0.111783 -0.717266 255 255 255 255 
0.366413 0.705209 -0.604497 0.373051 0.698609 -0.610556 255 255 255 255 
-0.326239 0.881475 -0.337914 -0.328104 0.884607 -0.33139 255 255 255 255 
0.7968 0.180346 -0.574054 0.804417 0.193379 -0.56171 255 255 255 255 
0.480627 -0.455766 -0.746791 0.485873 -0.455857 -0.745736 255 255 255 255 
-0.188875 -0.817745 -0.541279 -0.189128 -0.812417 -0.551551 255 255 255 255 
-0.750445 0.654968 0.0648111 -0.746114 0.663447 0.0561348 255 255 255 255 
-0.306342 -0.630401 0.710996 -0.309634 -0.62655 0.715235 255 255 255 255 
-0.559714 0.760908 0.324445 -0.550532 0.765764 0.332445 255 255 255 255 
-0.799217 -0.540055 0.258861 -0.798867 -0.537994 0.269023 255 255 255 255 
-0.567097 -0.578616 -0.583851 -0.574706 -0.566613 -0.590477 255 255 255 255 
0.605238 0.217231 0.764182 0.59906 0.239014 0.764198 255 255 255 255 
0.763005 0.424073 0.484299 0.774709 0.413755 0.478155 255 255 255 255 
0.820271 0.53853 0.181983 0.814689 0.549366 0.185684 255 255 255 255 
0.666274 -0.0872897 -0.739383 0.664442 -0.0829915 -0.742718 255 255 255 255 
0.334062 -0.810747 -0.478624 0.32942 -0.814071 -0.478299 255 255 255 255 
-0.707689 -0.605364 0.361208 -0.711487 -0.603099 0.360636 255 255 255 255 
-0.489667 -0.565797 -0.661775 -0.488883 -0.576537 -0.654674 255 255 255 255 
-0.28086 0.837137 0.466905 -0.288609 0.83033 0.476715 255 255 255 255 
0.733533 -0.675929 -0.0491341 0.751024 -0.658503 -0.0483377 255 255 255 255 
0.167723 -0.962059 -0.209995 0.172136 -0.964687 -0.199369 255 255 255 255 
-0.550914 -0.786627 -0.27431 -0.541374 -0.793603 -0.277684 255 255 255 255 
-0.426587 0.731609 0.529153 -0.428126 0.732144 0.529787 255 255 255 255 
-0.87103 0.453626 0.183261 -0.865669 0.461037 0.195093 255 255 255 255 
-0.0247151 0.992275 -0.116644 -0.0192509 0.992337 -0.122048 255 255 255 255 
0.962927 -0.265235 -0.00993164 0.964356 -0.264174 -0.0151382 255 255 255 255 
-0.747365 -0.656295 -0.0878781 -0.75787 -0.644939 -0.0984194 255 255 255 255 
0.313918 0.390203 -0.863277 0.30404 0.397719 -0.865667 255 255 255 255 
-0.254232 0.958967 0.114065 -0.26676 0.957974 0.105477 255 255 255 255 
0.0837715 -0.254709 0.962279 0.0967467 -0.257523 0.961417 255 255 255 255 
0.727584 0.683487 0.00428734 0.737722 0.6751 0.00249409 255 255 255 255 
0.187469 0.785666 -0.587038 0.204897 0.782482 -0.587995 255 255 255 255 
-0.349574 0.858852 0.368894 -0.343693 0.861864 0.372914 255 255 255 255 
0.217356 -0.137808 -0.964403 0.223483 -0.146188 -0.963683 255 255 255 255 
-0.471922 -0.208371 0.854503 -0.477205 -0.197628 0.856282 255 255 255 255 
-0.104916 -0.606594 0.786621 -0.101377 -0.610202 0.785733 255 255 255 255 
0.106076 -0.793526 -0.596968 0.086149 -0.80352 -0.589011 255 255 255 255 
0.352052 -0.932362 0.0568269 0.357378 -0.931202 0.0717259 255 255 255 255 
-0.912553 0.320462 -0.248383 -0.913933 0.316701 -0.253825 255 255 255 255 
0.111297 0.841679 -0.525299 0.122066 0.838953 -0.530337 255 255 255 255 
0.816443 -0.355338 -0.451299 0.82544 -0.333587 -0.455378 255 255 255 255 
-0.87315 0.0853522 -0.474041 -0.873653 0.0923597 -0.477704 255 255 255 255 
-0.711552 -0.00215542 -0.699908 -0.713902 -0.000292095 -0.700245 255 255 255 255 
0.379151 -0.467489 -0.797666 0.380986 -0.463955 -0.799747 255 255 255 255 
0.316599 0.935548 0.144064 0.324205 0.935073 0.143283 255 255 255 255 
0.908448 -0.303677 -0.282059 0.906636 -0.31088 -0.285245 255 255 255 255 
-0.623424 -0.760786 -0.172402 -0.626479 -0.760533 -0.170625 255 255 255 255 
0.30062 -0.321599 -0.895639 0.29504 -0.307772 -0.904559 255 255 255 255 
0.540729 0.706757 -0.452456 0.546724 0.700994 -0.457931 255 255 255 255 
-0.952389 -0.223501 0.203654 -0.960411 -0.194392 0.199557 255 255 255 255 
0.188088 0.981628 -0.00470027 0.194706 0.980734 -0.0158006 255 255 255 255 
0.152819 -0.901383 0.40207 0.139724 -0.899721 0.413497 255 255 255 255 
0.658228 -0.32243 -0.67819 0.656307 -0.321516 -0.682561 255 255 255 255 
-0.170362 -0.645306 -0.742518 -0.163344 -0.645956 -0.745694 255 255 255 255 
-0.591878 0.795264 0.122638 -0.602216 0.791238 0.106198 255 255 255 255 
0.876995 0.44495 0.173363 0.870129 0.468415 0.153175 255 255 255 255 
-0.342905 -0.869148 -0.351553 -0.344085 -0.865188 -0.364767 255 255 255 255 
0.469056 0.0362312 0.88072 0.465384 0.0300556 0.884598 255 255 255 255 
-0.210081 0.432823 -0.875376 -0.218498 0.421658 -0.880036 255 255 255 255 
0.51264 -0.268062 0.814045 0.508353 -0.246 0.825265 255 255 255 255 
0.694101 -0.625037 0.351593 0.697173 -0.620191 0.359602 255 255 255 255 
0.074508 0.11921 0.988955 0.0764384 0.11961 0.989874 255 255 255 255 
0.17484 0.483487 -0.856104 0.157315 0.488353 -0.858349 255 255 255 255 
-0.082652 -0.153324 -0.982961 -0.0782887 -0.153629 -0.985022 255 255 255 255 
-0.863416 -0.430037 0.257227 -0.877606 -0.415067 0.239848 255 255 255 255 
-0.896064 -0.0550401 -0.439613 -0.896998 -0.0565623 -0.438401 255 255 255 255 
-0.154793 0.983169 0.0735575 -0.157024 0.98551 0.0641453 255 255 255 255 
0.727145 0.572234 0.375193 0.72951 0.573883 0.372121 255 255 255 255 
-0.542855 -0.692253 0.472748 -0.549196 -0.688608 0.473501 255 255 255 255 
0.965442 0.147447 0.211067 0.962614 0.161766 0.217271 255 255 255 255 
0.223688 0.966502 0.113399 0.225445 0.967534 0.114246 255 255 255 255 
0.428303 0.2299 -0.871803 0.423843 0.216038 -0.879594 255 255 255 255 
0.621694 -0.73077 -0.277076 0.62436 -0.729761 -0.27861 255 255 255 255 
-0.672081 -0.60823 -0.417769 -0.678271 -0.598157 -0.426797 255 255 255 255 
0.23917 -0.240062 -0.93955 0.237819 -0.240995 -0.940938 255 255 255 255 
-0.00898233 0.434145 -0.898844 -0.0116664 0.439081 -0.898372 255 255 255 255 
0.789396 0.147609 0.59284 0.79517 0.137628 0.590562 255 255 255 255 
0.558263 -0.638563 0.527111 0.567095 -0.635113 0.524438 255 255 255 255 
-0.912187 -0.276389 -0.297678 -0.907677 -0.293765 -0.299707 255 255 255 255 
-0.284155 -0.927608 0.235703 -0.294129 -0.926477 0.234795 255 255 255 255 
0.0443024 0.238437 -0.968454 0.0407947 0.24507 -0.968647 255 255 255 255 
-0.416009 -0.539919 -0.729121 -0.412513 -0.540587 -0.733211 255 255 255 255 
0.200376 -0.977785 -0.0246585 0.192724 -0.981208 -0.00936818 255 255 255 255 
-0.812522 -0.276359 0.5105 -0.806511 -0.269069 0.526443 255 255 255 255 
0.121944 -0.985781 -0.102181 0.0982332 -0.991573 -0.084457 255 255 255 255 
0.107018 0.237414 0.964077 0.101871 0.244908 0.964179 255 255 255 255 
0.220085 -0.814813 -0.534175 0.204284 -0.813366 -0.544706 255 255 255 255 
-0.518627 -0.444628 -0.72788 -0.510361 -0.45507 -0.729686 255 255 255 255 
0.500807 -0.0711181 -0.860882 0.489745 -0.0721702 -0.868873 255 255 255 255 
-0.855386 0.493741 -0.145343 -0.855935 0.489668 -0.166134 255 255 255 255 
0.796758 -0.508485 -0.323016 0.798931 -0.50936 -0.319784 255 255 255 255 
-0.938808 -0.337087 0.0344504 -0.942364 -0.333649 0.0250955 255 255 255 255 
0.236651 -0.952428 0.184974 0.243067 -0.95443 0.17315 255 255 255 255 
0.886154 0.294927 -0.352316 0.891401 0.298083 -0.341396 255 255 255 255 
0.0628691 0.4975 -0.862943 0.0554657 0.49426 -0.867543 255 255 255 255 
-0.803306 0.539725 -0.245647 -0.799543 0.550905 -0.239237 255 255 255 255 
0.565 -0.814597 0.123238 0.568775 -0.811982 0.131071 255 255 255 255 
-0.194478 -0.64945 0.732361 -0.202752 -0.66216 0.721412 255 255 255 255 
-0.408125 -0.254467 -0.875216 -0.419942 -0.25397 -0.871291 255 255 255 255 
0.783844 0.482356 0.386764 0.782561 0.478882 0.397833 255 255 255 255 
0.367201 0.626348 -0.686058 0.380357 0.634991 -0.672396 255 255 255 255 
0.188026 0.971952 -0.131759 0.193345 0.972286 -0.131449 255 255 255 255 
-0.162285 0.952519 0.253525 -0.146094 0.956143 0.253862 255 255 255 255 
-0.101312 0.374231 -0.920016 -0.0835254 0.36 -0.929206 255 255 255 255 
-0.675427 0.614493 0.402473 -0.677668 0.620548 0.394571 255 255 255 255 
0.846083 -0.523868 0.0842298 0.85062 -0.520094 0.0771238 255 255 255 255 
-0.489238 0.669909 -0.555694 -0.485095 0.672225 -0.559282 255 255 255 255 
0.161537 -0.181218 0.968125 0.162558 -0.190068 0.96822 255 255 255 255 
-0.49164 -0.32281 0.807719 -0.491881 -0.327794 0.8066 255 255 255 255 
-0.530243 -0.250799 -0.807475 -0.552072 -0.237643 -0.799213 255 255 255 255 
-0.0744751 0.270846 -0.958 -0.0651129 0.292039 -0.954187 255 255 255 255 
-0.138041 -0.51746 0.843157 -0.142405 -0.518826 0.842936 255 255 255 255 
0.496716 -0.668171 -0.54993 0.489925 -0.673052 -0.554053 255 255 255 255 
-0.996273 -0.0668086 0.00454871 -0.998192 -0.0599791 0.00381967 255 255 255 255 
-0.946975 -0.23305 -0.211985 -0.94919 -0.227937 -0.216985 255 255 255 255 
-0.931721 0.33957 -0.119005 -0.9373 0.326649 -0.121529 255 255 255 255 
0.219915 0.845182 -0.48437 0.216865 0.844562 -0.489576 255 255 255 255 
0.7527 0.60676 0.249047 0.753926 0.609317 0.245618 255 255 255 255 
-0.861723 -0.10487 0.49244 -0.862412 -0.120486 0.491658 255 255 255 255 
-0.23111 0.560617 -0.793586 -0.233101 0.569684 -0.788114 255 255 255 255 
0.29081 0.483213 -0.824329 0.281105 0.50023 -0.818993 255 255 255 255 
0.820233 -0.568635 -0.0425447 0.815939 -0.577414 -0.0289263 255 255 255 255 
-0.566157 0.822241 0.0200573 -0.562434 0.826461 0.0250948 255 255 255 255 
-0.385892 -0.0418359 -0.919863 -0.385519 -0.0535726 -0.921144 255 255 255 255 
0.243343 0.189777 -0.94947 0.250413 0.203725 -0.946462 255 255 255 255 
-0.64501 0.507593 -0.568127 -0.644283 0.500291 -0.578454 255 255 255 255 
-0.456248 0.828936 0.322518 -0.450043 0.838267 0.307847 255 255 255 255 
0.932032 0.258258 0.246069 0.93675 0.261812 0.232282 255 255 255 255 
-0.982615 -0.179392 -0.00174991 -0.984194 -0.176303 0.0167463 255 255 255 255 
0.0162243 -0.8879 0.456059 0.0175837 -0.890239 0.455154 255 255 255 255 
-0.290659 0.474915 -0.828151 -0.291773 0.478789 -0.828028 255 255 255 255 
-0.710005 0.442673 0.545486 -0.711461 0.451261 0.53869 255 255 255 255 
-0.990842 0.0463192 -0.113767 -0.990899 0.0481579 -0.125695 255 255 255 255 
-0.378167 0.678396 -0.627784 -0.380296 0.674476 -0.632816 255 255 255 255 
0.435272 0.896058 0.0689072 0.435289 0.898312 0.0596588 255 255 255 255 
0.361357 0.554896 0.7472 0.358441 0.552681 0.752372 255 255 255 255 
0.0793114 -0.787754 0.608071 0.0830968 -0.77998 0.620262 255 255 255 255 
0.0722208 0.959996 0.264379 0.0631107 0.960673 0.270415 255 255 255 255 
0.836346 -0.323746 0.439092 0.832092 -0.329665 0.446031 255 255 255 255 
-0.831636 -0.409601 0.370662 -0.83097 -0.414315 0.371258 255 255 255 255 
0.670856 0.698432 -0.243566 0.666045 0.706102 -0.240422 255 255 255 255 
0.369108 -0.234565 -0.897878 0.36897 -0.230723 -0.900349 255 255 255 255 
0.00558149 -0.555063 -0.830536 -0.00349138 -0.557298 -0.830305 255 255 255 255 
0.253324 -0.59056 -0.76418 0.261399 -0.596287 -0.75902 255 255 255 255 
0.480921 0.826444 -0.288218 0.473448 0.833784 -0.283992 255 255 255 255 
-0.641351 0.0556464 0.762749 -0.639851 0.0626497 0.765941 255 255 255 255 
0.0288777 -0.985796 0.153673 0.0292295 -0.989618 0.140722 255 255 255 255 
-0.751135 0.56803 0.334204 -0.758084 0.568401 0.319732 255 255 255 255 
0.282331 0.870492 -0.398553 0.276867 0.87021 -0.407528 255 255 255 255 
-0.949934 -0.0113141 0.306582 -0.949496 -0.00260909 0.313769 255 255 255 255 
0.706225 -0.703995 0.0481663 0.703004 -0.709993 0.0411698 255 255 255 255 
-0.551109 0.0346317 -0.831754 -0.555802 0.0162132 -0.831157 255 255 255 255 
0.409664 0.416633 -0.809868 0.415355 0.415251 -0.809349 255 255 255 255 
-0.0893497 -0.591762 -0.798953 -0.0841815 -0.590253 -0.802817 255 255 255 255 
0.756653 -0.374978 0.532497 0.762623 -0.375077 0.526994 255 255 255 255 
0.248109 0.649383 -0.716364 0.261408 0.645552 -0.717585 255 255 255 255 
-0.899064 0.23372 0.36675 -0.899242 0.236882 0.367764 255 255 255 255 
-0.738876 0.635582 0.220392 -0.728348 0.640261 0.244079 255 255 255 255 
-0.902207 0.424463 -0.0581063 -0.89845 0.43419 -0.0653274 255 255 255 255 
-0.605967 -0.793259 0.0224333 -0.592327 -0.805236 0.0272768 255 255 255 255 
0.0614265 0.561294 0.823594 0.0586676 0.57893 0.813264 255 255 255 255 
-0.581518 -0.469244 -0.661875 -0.581412 -0.461121 -0.670319 255 255 255 255 
-0.180043 0.77525 -0.603015 -0.184782 0.7717 -0.608551 255 255 255 255 
0.578033 0.405541 -0.705742 0.565553 0.42227 -0.708405 255 255 255 255 
0.81858 -0.461539 0.337862 0.825173 -0.449635 0.341932 255 255 255 255 
0.054639 -0.930572 0.358041 0.0487751 -0.933774 0.354525 255 255 255 255 
-0.295064 -0.797078 -0.523401 -0.286739 -0.802426 -0.523347 255 255 255 255 
-0.34537 -0.852359 0.388724 -0.350561 -0.855608 0.380844 255 255 255 255 
-0.657167 0.751486 0.0256622 -0.659061 0.751773 0.0218297 255 255 255 255 
0.313506 0.568845 -0.757708 0.325658 0.574694 -0.750782 255 255 255 255 
-0.567522 0.794205 -0.211579 -0.572554 0.794376 -0.202852 255 255 255 255 
0.884725 -0.462338 -0.00152232 0.891085 -0.453737 0.00956396 255 255 255 255 
0.594491 0.793783 -0.115231 0.607706 0.784014 -0.126553 255 255 255 255 
0.856124 -0.384284 -0.343835 0.849432 -0.37849 -0.36771 255 255 255 255 
-0.880919 0.383643 0.271147 -0.884879 0.379711 0.269833 255 255 255 255 
-0.00856084 0.781682 0.621164 -0.00992124 0.787674 0.616013 255 255 255 255 
0.683264 0.652671 0.320846 0.700425 0.644133 0.307403 255 255 255 255 
-0.30905 0.0186677 -0.949159 -0.31804 0.0258919 -0.947724 255 255 255 255 
0.515423 -0.476289 0.71034 0.510553 -0.478901 0.714136 255 255 255 255 
-0.870048 -0.489258 -0.0369131 -0.872059 -0.487391 -0.0443056 255 255 255 255 
0.414661 0.891407 0.172726 0.408666 0.894003 0.183711 255 255 255 255 
-0.647838 0.728842 -0.212696 -0.653889 0.724759 -0.21715 255 255 255 255 
0.919009 -0.2119 -0.325723 0.926375 -0.208939 -0.313327 255 255 255 255 
-0.671893 -0.546321 -0.496787 -0.667603 -0.552801 -0.498715 255 255 255 255 
0.786348 -0.613223 0.0594679 0.777343 -0.625765 0.0644658 255 255 255 255 
0.480185 -0.768443 0.418373 0.487416 -0.767023 0.417255 255 255 255 255 
0.562314 -0.14815 -0.811749 0.555498 -0.142827 -0.81916 255 255 255 255 
-0.0113964 0.971659 -0.227655 -0.0121247 0.976627 -0.214599 255 255 255 255 
0.453489 0.633996 -0.622975 0.456529 0.635579 -0.622592 255 255 255 255 
-0.918201 -0.23756 0.310563 -0.918037 -0.236126 0.318518 255 255 255 255 
0.398349 -0.865924 -0.298035 0.397841 -0.863782 -0.309199 255 255 255 255 
0.726387 -0.294433 0.61849 0.728631 -0.306484 0.612506 255 255 255 255 
0.459904 0.13284 -0.876108 0.454669 0.133897 -0.880538 255 255 255 255 
0.511653 0.168964 0.840945 0.520333 0.183795 0.83395 255 255 255 255 
0.982983 -0.169018 0.0538854 0.984447 -0.160623 0.0711589 255 255 255 255 
-0.312731 -0.153593 0.93699 -0.311655 -0.148179 0.93857 255 255 255 255 
0.0695407 -0.471938 0.877691 0.0741348 -0.487027 0.870235 255 255 255 255 
-0.233823 -0.437821 -0.866158 -0.22872 -0.42376 -0.876422 255 255 255 255 
-0.631965 0.767144 -0.100247 -0.635356 0.766716 -0.0920247 255 255 255 255 
-0.39657 -0.741137 -0.538733 -0.395618 -0.758151 -0.518357 255 255 255 255 
0.609799 -0.715246 0.338117 0.628409 -0.704045 0.330791 255 255 255 255 
0.476959 0.797698 0.36385 0.463906 0.807688 0.363911 255 255 255 255 
-0.714276 0.131675 0.685645 -0.704735 0.132408 0.697006 255 255 255 255 
0.157719 0.0955468 -0.981362 0.165272 0.112147 -0.979851 255 255 255 255 
0.675195 -0.417838 -0.606601 0.680014 -0.425047 -0.597425 255 255 255 255 
0.274868 -0.0852228 0.957409 0.266999 -0.0895579 0.959526 255 255 255 255 
0.307385 -0.781771 0.539605 0.29569 -0.785905 0.543065 255 255 255 255 
0.606222 -0.184952 0.77189 0.608392 -0.201408 0.767655 255 255 255 255 
-0.288834 -0.373468 0.880219 -0.296119 -0.383371 0.874837 255 255 255 255 
0.222275 0.262486 0.937828 0.234846 0.250825 0.939113 255 255 255 255 
0.529707 -0.130026 0.836373 0.540115 -0.128201 0.83177 255 255 255 255 
0.806888 0.513815 0.286618 0.803821 0.513717 0.299943 255 255 255 255 
0.262888 0.715053 -0.645154 0.254544 0.718015 -0.647813 255 255 255 255 
0.639228 0.637767 0.427156 0.650256 0.631409 0.42248 255 255 255 255 
-0.971677 0.052533 0.223866 -0.974749 0.0371943 0.220184 255 255 255 255 
-0.783363 -0.212863 -0.582032 -0.783459 -0.218384 -0.581807 255 255 255 255 
-0.169164 0.293581 0.939236 -0.184583 0.295192 0.937439 255 255 255 255 
0.0640657 0.785782 -0.612696 0.0747197 0.787046 -0.612353 255 255 255 255 
-0.73158 0.222977 0.641153 -0.734482 0.222343 0.641171 255 255 255 255 
-0.440997 0.0771352 0.892466 -0.441793 0.0736696 0.894087 255 255 255 255 
0.695889 0.574146 -0.428516 0.694638 0.580864 -0.424352 255 255 255 255 
0.618154 0.314345 0.718688 0.603774 0.333043 0.724251 255 255 255 255 
0.434382 -0.743096 0.507482 0.436337 -0.742697 0.507948 255 255 255 255 
0.379722 0.914732 -0.12934 0.389454 0.910559 -0.138593 255 255 255 255 
-0.807316 -0.586426 -0.0288014 -0.812247 -0.582377 -0.033031 255 255 255 255 
-0.694976 -0.642953 -0.317077 -0.694691 -0.645786 -0.316804 255 255 255 255 
0.0515882 -0.00663598 0.997626 0.0540473 -0.00575268 0.998522 255 255 255 255 
-0.300972 0.634993 -0.709098 -0.291584 0.647093 -0.70445 255 255 255 255 
-0.658439 0.41082 -0.628348 -0.661572 0.411085 -0.627161 255 255 255 255 
0.279143 -0.88055 0.380751 0.274078 -0.884975 0.376433 255 255 255 255 
-0.269871 0.607706 0.746474 -0.270149 0.610012 0.744919 255 255 255 255 
-0.834455 0.0320135 -0.547874 -0.83387 0.0346832 -0.55087 255 255 255 255 
-0.52682 0.143639 -0.835994 -0.526976 0.138841 -0.838463 255 255 255 255 
-0.862136 0.0225417 0.504814 -0.873938 0.0278688 0.485238 255 255 255 255 
-0.49085 0.759096 0.423829 -0.499389 0.756279 0.422673 255 255 255 255 
0.873878 -0.340825 0.342903 0.869416 -0.341495 0.357067 255 255 255 255 
0.568005 0.504958 -0.647451 0.556292 0.507587 -0.657947 255 255 255 255 
0.0495255 0.996773 -0.0047718 0.0401968 0.999188 -0.00287832 255 255 255 255 
-0.992141 -0.0154304 0.116987 -0.994081 -0.0258673 0.105518 255 255 255 255 
0.544186 -0.585386 -0.598722 0.551691 -0.589171 -0.59035 255 255 255 255 
0.648109 0.241747 -0.720048 0.648286 0.229141 -0.726099 255 255 255 255 
0.122038 -0.236755 -0.962538 0.12145 -0.241773 -0.962702 255 255 255 255 
-0.24166 0.924218 -0.290315 -0.217949 0.930997 -0.292819 255 255 255 255 
0.0146008 -0.115589 -0.991531 0.00849133 -0.110434 -0.993847 255 255 255 255 
-0.567423 -0.818708 -0.0681971 -0.569664 -0.819326 -0.0647107 255 255 255 255 
0.921018 0.201726 0.328119 0.917014 0.206167 0.341439 255 255 255 255 
-0.626962 0.505417 0.590738 -0.615974 0.516242 0.595038 255 255 255 255 
-0.0118137 0.216532 0.975022 0.0151885 0.224327 0.974396 255 255 255 255 
0.0968836 -0.711437 -0.694153 0.105734 -0.718909 -0.687015 255 255 255 255 
0.611925 0.626534 -0.4788 0.611973 0.628638 -0.4799 255 255 255 255 
-0.885771 0.186918 -0.42319 -0.885677 0.202537 -0.417797 255 255 255 255 
0.894311 -0.153958 -0.416341 0.89467 -0.148861 -0.421196 255 255 255 255 
0.862411 -0.491338 -0.112504 0.867923 -0.4859 -0.103011 255 255 255 255 
0.924459 -0.24972 0.283301 0.925639 -0.247968 0.28584 255 255 255 255 
0.637847 -0.663542 -0.387525 0.620576 -0.680495 -0.38963 255 255 255 255 
-0.617417 -0.692334 0.3694 -0.612869 -0.69819 0.37003 255 255 255 255 
-0.489072 -0.835281 0.245057 -0.479489 -0.841781 0.247982 255 255 255 255 
-0.457084 -0.615992 0.638906 -0.462079 -0.605103 0.648332 255 255 255 255 
-0.752568 -0.487967 -0.439551 -0.775379 -0.471888 -0.419654 255 255 255 255 
-0.0787738 -0.978897 0.179756 -0.0672115 -0.980461 0.184873 255 255 255 255 
-0.647657 -0.751405 0.112224 -0.648455 -0.752791 0.113188 255 255 255 255 
-0.255272 -0.918857 -0.295622 -0.268919 -0.919407 -0.287008 255 255 255 255 
0.379928 -0.407094 0.829149 0.390057 -0.394803 0.831857 255 255 255 255 
-0.589625 -0.0986201 -0.800128 -0.572029 -0.0896422 -0.81532 255 255 255 255 
-0.38826 -0.557968 0.731746 -0.406626 -0.554199 0.726305 255 255 255 255 
0.469261 -0.857087 -0.203876 0.458393 -0.86655 -0.1974 255 255 255 255 
0.00882389 -0.832676 -0.551463 0.010056 -0.829566 -0.558318 255 255 255 255 
0.0134388 -0.237512 -0.969976 -0.00127205 -0.241038 -0.970515 255 255 255 255 
0.0163893 0.987522 0.151627 0.0252333 0.987118 0.157993 255 255 255 255 
-0.765786 -0.124354 -0.628618 -0.773079 -0.119244 -0.623001 255 255 255 255 
0.562777 0.0824811 0.820318 0.564092 0.0793139 0.821894 255 255 255 255 
0.21893 -0.652922 0.723033 0.221611 -0.668174 0.710234 255 255 255 255 
0.184493 -0.479811 0.855669 0.179644 -0.486458 0.855036 255 255 255 255 
-0.262794 -0.90213 0.337379 -0.259107 -0.902084 0.345121 255 255 255 255 
-0.881435 -0.242122 -0.400928 -0.881067 -0.239189 -0.408055 255 255 255 255 
-0.762959 -0.599926 -0.233741 -0.762579 -0.60285 -0.234617 255 255 255 255 
-0.151642 0.198456 -0.966827 -0.154127 0.204371 -0.966684 255 255 255 255 
0.359113 -0.914704 -0.177924 0.364741 -0.912861 -0.183437 255 255 255 255 
0.573819 -0.792072 -0.202381 0.568446 -0.802714 -0.180331 255 255 255 255 
0.248814 -0.509269 -0.821901 0.222496 -0.512955 -0.82908 255 255 255 255 
0.825035 0.551477 -0.106463 0.832124 0.544317 -0.106247 255 255 255 255 
-0.582154 -0.783664 0.209488 -0.573463 -0.789868 0.21737 255 255 255 255 
-0.463281 -0.882068 -0.0670725 -0.472259 -0.878568 -0.0713374 255 255 255 255 
-0.780779 -0.508404 0.358558 -0.780957 -0.502971 0.370306 255 255 255 255 
-0.452526 0.651099 0.606809 -0.455134 0.658779 0.599052 255 255 255 255 
-0.173974 -0.401607 0.89755 -0.174985 -0.408151 0.895987 255 255 255 255 
0.121766 0.892678 -0.42979 0.13837 0.892137 -0.430053 255 255 255 255 
-0.853205 0.35562 0.380344 -0.842421 0.384271 0.377708 255 255 255 255 
-0.584584 0.602837 -0.540584 -0.56471 0.612757 -0.55284 255 255 255 255 
0.190384 0.94775 -0.250295 0.20386 0.944478 -0.257688 255 255 255 255 
-0.0352875 0.996586 0.0540545 -0.0295678 0.998203 0.0521177 255 255 255 255 
0.62329 -0.207752 -0.751428 0.63397 -0.189471 -0.749788 255 255 255 255 
-0.690886 -0.287496 -0.660124 -0.687542 -0.291554 -0.665043 255 255 255 255 
0.418938 -0.641092 -0.641108 0.413256 -0.639636 -0.64814 255 255 255 255 
0.70666 0.523539 0.473378 0.70918 0.514346 0.482194 255 255 255 255 
-0.571216 -0.224237 0.78776 -0.573744 -0.235911 0.784324 255 255 255 255 
0.903694 -0.0971286 0.413227 0.90537 -0.0745284 0.418032 255 255 255 255 
-0.98738 0.145605 0.0290042 -0.988774 0.147504 0.023856 255 255 255 255 
0.680511 -0.24088 0.689786 0.689123 -0.245124 0.681926 255 255 255 255 
0.919244 -0.383572 -0.0789063 0.920478 -0.385889 -0.0617246 255 255 255 255 
0.644397 0.540206 -0.53816 0.650229 0.544656 -0.529672 255 255 255 255 
0.244383 -0.965124 0.0735927 0.230887 -0.970037 0.0756304 255 255 255 255 
0.29176 0.281632 -0.913041 0.297581 0.29662 -0.907448 255 255 255 255 
0.736347 -0.530277 0.418043 0.729137 -0.533029 0.429232 255 255 255 255 
-0.379758 0.605863 0.696391 -0.387474 0.603907 0.696534 255 255 255 255 
0.366739 0.0102365 0.928292 0.382951 -0.0098488 0.923716 255 255 255 255 
-0.457905 -0.853433 -0.241753 -0.455925 -0.856112 -0.243321 255 255 255 255 
0.709073 0.195552 0.675366 0.711073 0.182534 0.679011 255 255 255 255 
0.719788 -0.59549 -0.352242 0.714978 -0.601046 -0.357141 255 255 255 255 
-0.778555 0.458119 0.425686 -0.773937 0.454072 0.441406 255 255 255 255 
-0.20371 -0.809263 0.548206 -0.202034 -0.808691 0.552451 255 255 255 255 
-0.161368 0.912084 0.371697 -0.166312 0.917947 0.360159 255 255 255 255 
0.493766 0.443222 -0.74584 0.486349 0.456224 -0.745201 255 255 255 255 
0.461135 0.728616 0.503943 0.464113 0.724358 0.509809 255 255 255 255 
0.576097 0.305988 -0.755319 0.586909 0.308685 -0.748499 255 255 255 255 
0.793191 -0.0709256 0.6017 0.800166 -0.0664707 0.596084 255 255 255 255 
-0.0382973 -0.345275 -0.936141 -0.0307574 -0.342206 -0.939121 255 255 255 255 
-0.0922297 -0.157276 0.9815 -0.103403 -0.146522 0.983788 255 255 255 255 
-0.522505 -0.347866 -0.776086 -0.535115 -0.354836 -0.766644 255 255 255 255 
-0.639321 0.395106 0.656699 -0.621429 0.413921 0.665203 255 255 255 255 
0.365891 0.860932 0.34903 0.358516 0.866282 0.347881 255 255 255 255 
0.167942 -0.43738 -0.881622 0.149666 -0.435098 -0.887857 255 255 255 255 
0.68264 0.124038 -0.718112 0.673777 0.137705 -0.72599 255 255 255 255 
0.0327067 -0.595458 0.800419 0.0347861 -0.617137 0.786086 255 255 255 255 
0.891906 0.436457 -0.106121 0.902097 0.422489 -0.0878853 255 255 255 255 
0.392308 -0.0581792 -0.916579 0.407665 -0.0528297 -0.911602 255 255 255 255 
-0.00728696 0.841783 -0.536846 -0.00562861 0.82782 -0.560966 255 255 255 255 
-0.64535 -0.491907 -0.581183 -0.655561 -0.479441 -0.583417 255 255 255 255 
-0.190151 0.323683 -0.925064 -0.204902 0.33487 -0.919716 255 255 255 255 
-0.124797 -0.963071 -0.231665 -0.106375 -0.967599 -0.228988 255 255 255 255 
-0.981438 0.159588 -0.0930793 -0.983718 0.149368 -0.0999375 255 255 255 255 
0.0847683 0.451734 0.88767 0.0962585 0.444665 0.89051 255 255 255 255 
0.396088 0.701571 0.589828 0.385729 0.709206 0.590119 255 255 255 255 
0.959882 0.235149 0.139706 0.964075 0.231921 0.129509 255 255 255 255 
0.857609 0.230031 0.456866 0.867036 0.234592 0.439563 255 255 255 255 
0.849743 -0.172454 0.495448 0.861691 -0.176318 0.475816 255 255 255 255 
0.497772 0.628428 0.595902 0.48763 0.640643 0.593121 255 255 255 255 
-0.301862 -0.335828 -0.89102 -0.292503 -0.333654 -0.896168 255 255 255 255 
0.93391 0.338825 0.099868 0.941191 0.326985 0.0850868 255 255 255 255 
0.501032 -0.807589 -0.307703 0.48947 -0.816785 -0.305419 255 255 255 255 
0.884611 0.301768 0.352952 0.8951 0.295803 0.333611 255 255 255 255 
-0.31844 0.832239 -0.450923 -0.304121 0.8386 -0.451953 255 255 255 255 
0.0181567 -0.898431 -0.435615 0.0196881 -0.895007 -0.445617 255 255 255 255 
0.551593 -0.0318082 0.831883 0.548023 -0.0335949 0.835789 255 255 255 255 
0.966223 0.249756 0.0276193 0.969664 0.243615 0.0200756 255 255 255 255 
0.851386 0.112769 0.509158 0.859145 0.10761 0.500289 255 255 255 255 
-0.569369 0.357694 0.738594 -0.558476 0.363073 0.745843 255 255 255 255 
-0.419919 -0.116416 0.898611 -0.415113 -0.127711 0.900761 255 255 255 255 
0.757226 -0.344426 -0.552483 0.765936 -0.350561 -0.538933 255 255 255 255 
0.353353 -0.817676 0.451008 0.33938 -0.822483 0.456446 255 255 255 255 
0.584942 -0.4936 -0.640464 0.595652 -0.491427 -0.635373 255 255 255 255 
0.983674 -0.150538 -0.0783642 0.98587 -0.154719 -0.0641994 255 255 255 255 
0.5292 0.843028 0.0759397 0.519339 0.851369 0.0738854 255 255 255 255 
0.223158 0.801307 0.55225 0.226147 0.804588 0.549086 255 255 255 255 
0.639757 0.398042 0.654986 0.64122 0.407444 0.650252 255 255 255 255 
-0.416017 0.309892 -0.853186 -0.410794 0.29767 -0.861767 255 255 255 255 
-0.812953 -0.563325 -0.138079 -0.82575 -0.547702 -0.134758 255 255 255 255 
-0.275515 0.469747 0.836 -0.294574 0.476998 0.82807 255 255 255 255 
0.208456 0.56995 -0.793113 0.223745 0.566189 -0.793328 255 255 255 255 
0.0829196 -0.964152 0.245774 0.0730999 -0.968639 0.237477 255 255 255 255 
-0.458816 0.863631 0.19855 -0.435521 0.879156 0.193405 255 255 255 255 
0.141516 -0.97874 0.139443 0.139314 -0.980558 0.138195 255 255 255 255 
-0.96476 0.238687 0.102539 -0.965704 0.230815 0.118917 255 255 255 255 
0.523485 0.380233 0.760687 0.523659 0.390824 0.756993 255 255 255 255 
-0.119817 -0.71822 0.683087 -0.104047 -0.727727 0.677928 255 255 255 255 
-0.811102 0.154948 0.562065 -0.814737 0.142251 0.56211 255 255 255 255 
-0.503097 -0.0696772 -0.859597 -0.486269 -0.0795449 -0.870181 255 255 255 255 
-0.397383 0.736229 -0.544514 -0.420675 0.726557 -0.543275 255 255 255 255 
-0.837479 0.310298 -0.44721 -0.841695 0.306765 -0.444347 255 255 255 255 
0.658604 0.749712 -0.0257142 0.668422 0.743243 -0.0283144 255 255 255 255 
0.341013 0.776657 0.526278 0.337766 0.786091 0.517664 255 255 255 255 
-0.746005 0.364799 -0.554027 -0.736185 0.355378 -0.575968 255 255 255 255 
-0.0818134 0.645583 -0.757324 -0.078198 0.647815 -0.757774 255 255 255 255 
0.68129 0.696489 0.218547 0.680034 0.694841 0.233984 255 255 255 255 
-0.603863 0.246652 -0.755284 -0.612879 0.250949 -0.749269 255 255 255 255 
-0.415648 0.871445 -0.253253 -0.412063 0.87365 -0.258728 255 255 255 255 
0.267404 0.0313032 0.960969 0.270345 0.031339 0.962254 255 255 255 255 
0.839015 -0.494806 -0.216334 0.846614 -0.485349 -0.218361 255 255 255 255 
-0.920453 0.277647 0.269288 -0.917328 0.283914 0.279108 255 255 255 255 
0.762141 0.479638 -0.43099 0.76768 0.477888 -0.426955 255 255 255 255 
0.153338 -0.0780488 0.983709 0.152589 -0.0633854 0.986255 255 255 255 255 
0.889642 -0.224414 0.395259 0.885336 -0.235706 0.400777 255 255 255 255 
-0.188368 -0.747512 -0.63532 -0.192035 -0.742263 -0.642004 255 255 255 255 
0.732794 0.00436308 -0.677678 0.744874 -0.00295095 -0.667199 255 255 255 255 
-0.713746 -0.532044 0.453089 -0.706612 -0.542621 0.454161 255 255 255 255 
-0.288716 -0.116394 -0.948711 -0.296917 -0.144658 -0.943883 255 255 255 255 
0.923165 -0.322144 0.201218 0.930062 -0.314474 0.189973 255 255 255 255 
0.938524 -0.144653 0.308263 0.932243 -0.149252 0.329616 255 255 255 255 
0.683718 -0.680121 0.259613 0.682103 -0.679488 0.270244 255 255 255 255 
-0.134355 0.56046 -0.814841 -0.127693 0.551771 -0.824162 255 255 255 255 
-0.951899 0.245013 -0.177515 -0.953056 0.241865 -0.182169 255 255 255 255 
-0.874669 -0.457821 -0.151494 -0.877426 -0.455771 -0.149653 255 255 255 255 
-0.96206 -0.130154 -0.234437 -0.963295 -0.130323 -0.234691 255 255 255 255 
0.646641 -0.745452 0.15141 0.652316 -0.741405 0.157491 255 255 255 255 
0.980657 -0.0843272 -0.167954 0.982418 -0.056978 -0.177789 255 255 255 255 
0.593367 0.744688 -0.29892 0.596646 0.745949 -0.295928 255 255 255 255 
-0.684834 -0.453292 0.568157 -0.683569 -0.452899 0.572378 255 255 255 255 
-0.186992 -0.88558 0.421694 -0.162609 -0.89101 0.423862 255 255 255 255 
0.853966 0.271395 -0.439188 0.858291 0.27324 -0.434368 255 255 255 255 
0.161854 0.355695 0.918772 0.167324 0.342537 0.924484 255 255 255 255 
0.405273 -0.838931 0.359507 0.420599 -0.827141 0.372738 255 255 255 255 
-0.477401 0.378902 -0.790443 -0.460643 0.374896 -0.804526 255 255 255 255 
0.442577 0.465531 0.765148 0.449756 0.473716 0.757174 255 255 255 255 
-0.893751 -0.333857 0.29371 -0.891893 -0.34065 0.297462 255 255 255 255 
-0.0582519 -0.985742 -0.148846 -0.0577426 -0.987147 -0.149021 255 255 255 255 
0.898056 -0.41858 0.127599 0.900517 -0.410897 0.142247 255 255 255 255 
0.352485 -0.1657 0.919153 0.357712 -0.149922 0.921719 255 255 255 255 
0.284877 0.938747 -0.185638 0.267065 0.94641 -0.181618 255 255 255 255 
0.645386 -0.0886944 0.756671 0.656097 -0.100932 0.747897 255 255 255 255 
-0.6755 -0.0992717 -0.728601 -0.68078 -0.0958179 -0.726194 255 255 255 255 
0.490172 0.333032 -0.804072 0.488271 0.324238 -0.810223 255 255 255 255 
0.329658 0.251722 0.907597 0.32877 0.255041 0.909321 255 255 255 255 
-0.219882 0.886979 -0.403179 -0.214111 0.886805 -0.409553 255 255 255 255 
0.64546 0.0193113 0.761817 0.63219 0.0244095 0.774428 255 255 255 255 
-0.464814 0.531663 0.705488 -0.476544 0.532663 0.699411 255 255 255 255 
-0.199045 -0.978125 -0.0299768 -0.194288 -0.980639 -0.0244748 255 255 255 255 
-0.408702 0.458816 -0.787186 -0.403511 0.469242 -0.785487 255 255 255 255 
0.73829 0.0805898 0.667624 0.740604 0.0870635 0.666277 255 255 255 255 
0.187647 0.71668 0.669512 0.192914 0.71385 0.673203 255 255 255 255 
0.467256 -0.874157 0.11859 0.469302 -0.874546 0.122169 255 255 255 255 
0.334141 -0.626421 0.703125 0.337395 -0.637185 0.692936 255 255 255 255 
-0.798127 0.0588119 0.596442 -0.803254 0.045935 0.593863 255 255 255 255 
0.702719 -0.660196 -0.258693 0.702726 -0.661805 -0.261132 255 255 255 255 
-0.93834 0.138161 0.313556 -0.939002 0.157096 0.305933 255 255 255 255 
0.399752 -0.343629 -0.848399 0.384743 -0.337144 -0.859248 255 255 255 255 
-0.941745 -0.0509852 -0.326414 -0.940517 -0.0461311 -0.336602 255 255 255 255 
-0.730968 -0.289064 0.616061 -0.71737 -0.291671 0.632699 255 255 255 255 
0.217334 0.385356 -0.894611 0.21163 0.391042 -0.895712 255 255 255 255 
0.346541 0.170604 -0.920765 0.348453 0.177406 -0.920385 255 255 255 255 
-0.723592 0.668314 -0.163479 -0.726671 0.669155 -0.155505 255 255 255 255 
-0.881344 0.418929 -0.214163 -0.87515 0.42095 -0.238564 255 255 255 255 
0.674622 -0.389402 0.625513 0.682066 -0.392185 0.617234 255 255 255 255 
0.282632 0.954995 -0.0659213 0.292397 0.954015 -0.0660283 255 255 255 255 
-0.0882907 -0.99382 -0.0334918 -0.0934238 -0.995291 -0.0258479 255 255 255 255 
-0.757081 -0.5508 -0.34724 -0.764109 -0.550492 -0.336296 255 255 255 255 
-0.0415627 0.00691978 -0.997531 -0.0204655 0.026044 -0.999451 255 255 255 255 
-0.257544 0.712132 -0.650837 -0.25513 0.710366 -0.655964 255 255 255 255 
-0.304162 0.125959 -0.942268 -0.306399 0.141041 -0.941396 255 255 255 255 
0.447417 -0.168118 -0.876186 0.462437 -0.183289 -0.8675 255 255 255 255 
0.407576 0.130399 0.903005 0.404194 0.134161 0.90478 255 255 255 255 
-0.6083 -0.333433 -0.718861 -0.614992 -0.32172 -0.719918 255 255 255 255 
0.13739 0.656353 -0.739688 0.125014 0.656489 -0.743905 255 255 255 255 
0.489731 -0.738061 -0.461074 0.477341 -0.74496 -0.466026 255 255 255 255 
-0.734248 0.619004 -0.274435 -0.73098 0.629734 -0.262875 255 255 255 255 
0.837308 0.508072 -0.193763 0.845453 0.491059 -0.20993 255 255 255 255 
-0.929348 0.327666 0.1621 -0.935665 0.310822 0.167093 255 255 255 255 
-0.810543 -0.177453 0.555347 -0.812547 -0.167913 0.558186 255 255 255 255 
-0.666452 -0.739972 -0.0730855 -0.66591 -0.740836 -0.0878955 255 255 255 255 
-0.966997 0.245858 -0.0312092 -0.971262 0.235332 -0.0356338 255 255 255 255 
0.651785 0.125209 0.74568 0.640658 0.135884 0.755707 255 255 255 255 
-0.936527 -0.133804 0.319346 -0.942051 -0.122037 0.312484 255 255 255 255 
-0.704276 0.304896 -0.639217 -0.717641 0.280239 -0.637541 255 255 255 255 
-0.139569 0.019194 0.988923 -0.140206 0.00741812 0.990095 255 255 255 255 
0.331133 0.907475 0.253741 0.33369 0.906227 0.259623 255 255 255 255 
0.471209 -0.547251 -0.690141 0.481493 -0.54738 -0.6845 255 255 255 255 
-0.0552398 -0.45015 -0.8894 -0.0615867 -0.447541 -0.89214 255 255 255 255 
-0.436232 -0.827852 0.347769 -0.428079 -0.836998 0.340857 255 255 255 255 
0.448477 -0.891636 0.0134509 0.453152 -0.891383 0.00947538 255 255 255 255 
0.0147619 -0.348718 0.935471 0.012745 -0.344507 0.938697 255 255 255 255 
0.414059 0.746491 -0.518232 0.40485 0.751293 -0.521205 255 255 255 255 
-0.971667 -0.0933262 0.213758 -0.974054 -0.104031 0.200988 255 255 255 255 
-0.589837 -0.326899 0.735925 -0.584446 -0.333035 0.739939 255 255 255 255 
-0.218282 -0.0359527 -0.97326 -0.225231 -0.0359099 -0.973643 255 255 255 255 
-0.161756 -0.92936 -0.326152 -0.162243 -0.932259 -0.323374 255 255 255 255 
-0.650704 0.269411 0.709179 -0.640316 0.272078 0.71831 255 255 255 255 
0.956545 -0.187564 -0.220565 0.95702 -0.192436 -0.21698 255 255 255 255 
-0.442136 -0.825898 -0.344906 -0.452219 -0.82217 -0.34574 255 255 255 255 
0.0881015 0.989296 -0.0985442 0.0733431 0.993296 -0.0893517 255 255 255 255 
0.734453 0.36121 0.5721 0.73341 0.368005 0.571561 255 255 255 255 
-0.961856 -0.251139 0.0908539 -0.96377 -0.249682 0.0938382 255 255 255 255 
0.598606 0.150973 -0.784671 0.592282 0.162241 -0.789227 255 255 255 255 
-0.989825 -0.0760171 -0.11078 -0.99089 -0.0648558 -0.118031 255 255 255 255 
0.326222 -0.137768 -0.933232 0.317675 -0.131278 -0.939068 255 255 255 255 
-0.349917 -0.480579 0.802509 -0.351179 -0.480108 0.803847 255 255 255 255 
-0.0138569 0.63243 0.772512 -0.00928151 0.64123 0.767293 255 255 255 255 
-0.638671 0.732557 0.227571 -0.635444 0.738842 0.224329 255 255 255 255 
-0.857815 -0.166562 -0.482525 -0.859187 -0.171286 -0.48214 255 255 255 255 
-0.423095 -0.343998 -0.836218 -0.423174 -0.343555 -0.838387 255 255 255 255 
0.494797 0.680248 -0.537419 0.487204 0.681355 -0.546249 255 255 255 255 
0.381212 -0.882737 0.267739 0.374031 -0.891821 0.254472 255 255 255 255 
0.115993 -0.621185 -0.773194 0.11449 -0.624269 -0.772774 255 255 255 255 
0.978752 0.128558 -0.150223 0.980757 0.127155 -0.148143 255 255 255 255 
-0.553343 0.248623 0.792164 -0.549738 0.263158 0.792803 255 255 255 255 
-0.276875 -0.274378 0.918798 -0.280979 -0.269792 0.921012 255 255 255 255 
-0.846135 0.262376 0.459514 -0.854777 0.256198 0.451352 255 255 255 255 
0.155346 0.921622 0.352346 0.138616 0.92248 0.3603 255 255 255 255 
-0.772997 0.0982201 -0.625156 -0.761047 0.0926088 -0.642052 255 255 255 255 
0.273008 -0.0343613 -0.960128 0.276008 -0.0399903 -0.960323 255 255 255 255 
-0.0278818 -0.672293 0.737632 -0.0318087 -0.67418 0.737882 255 255 255 255 
-0.232889 0.971312 -0.00976264 -0.228467 0.973405 -0.0168934 255 255 255 255 
-0.792669 0.590963 -0.139565 -0.791356 0.592734 -0.149739 255 255 255 255 
0.422487 -0.491739 0.758787 0.422781 -0.489077 0.762929 255 255 255 255 
0.490937 -0.381439 0.782582 0.476662 -0.383035 0.791251 255 255 255 255 
0.361649 -0.567445 -0.738294 0.378907 -0.573152 -0.726585 255 255 255 255 
-0.391699 -0.369845 0.840597 -0.40202 -0.388465 0.829141 255 255 255 255 
0.556672 -0.739639 -0.372785 0.556044 -0.750632 -0.356884 255 255 255 255 
-0.292183 0.273778 0.914828 -0.281013 0.275575 0.919288 255 255 255 255 
0.830901 -0.0266263 -0.554031 0.828349 -0.0341399 -0.559171 255 255 255 255 
0.579622 0.784933 -0.210737 0.572078 0.793998 -0.205656 255 255 255 255 
-0.391647 0.801278 0.44864 -0.396776 0.803467 0.443858 255 255 255 255 
-0.801224 0.582346 0.127879 -0.790359 0.598377 0.131445 255 255 255 255 
0.0808353 0.94147 -0.322815 0.0802948 0.939462 -0.333113 255 255 255 255 
-0.311682 -0.727098 -0.609241 -0.293344 -0.736987 -0.608933 255 255 255 255 
0.446211 -0.192621 0.871921 0.454006 -0.19074 0.870343 255 255 255 255 
-0.352989 0.934553 0.0266431 -0.36382 0.931146 0.0245299 255 255 255 255 
0.719236 -0.13722 0.678874 0.730312 -0.1187 0.672721 255 255 255 255 
0.248829 -0.956597 -0.140976 0.25316 -0.959354 -0.124695 255 255 255 255 
-0.90728 0.409251 0.0796204 -0.910701 0.405035 0.0810522 255 255 255 255 
0.521147 0.832749 0.179048 0.521577 0.834261 0.178793 255 255 255 255 
0.186 -0.339442 -0.920415 0.193002 -0.327824 -0.924814 255 255 255 255 
0.400523 0.510481 -0.758525 0.415323 0.501611 -0.758876 255 255 255 255 
0.898498 0.0206784 0.436853 0.899256 0.0132478 0.437222 255 255 255 255 
-0.290158 0.321896 -0.899464 -0.284969 0.324095 -0.902084 255 255 255 255 
-0.497344 -0.864918 0.0351552 -0.485463 -0.873438 0.0378343 255 255 255 255 
-0.827484 0.169191 -0.533015 -0.822396 0.180498 -0.539524 255 255 255 255 
-0.322309 0.763055 0.55749 -0.333786 0.761441 0.555693 255 255 255 255 
-0.230732 -0.726919 0.645445 -0.236254 -0.712705 0.660481 255 255 255 255 
0.767062 -0.0782099 -0.634164 0.75613 -0.0835622 -0.649065 255 255 255 255 
0.629427 -0.77457 0.0213056 0.635163 -0.772007 0.0239336 255 255 255 255 
-0.418158 0.785492 -0.452091 -0.419336 0.787588 -0.451511 255 255 255 255 
0.816268 0.0323721 0.574301 0.814805 0.0314766 0.578879 255 255 255 255 
0.0919946 0.972144 -0.208019 0.102232 0.97002 -0.220477 255 255 255 255 
0.0362286 -0.136831 0.989377 0.0225163 -0.13933 0.98999 255 255 255 255 
-0.612393 0.136359 -0.77682 -0.630749 0.142436 -0.762803 255 255 255 255 
-0.312607 -0.521835 -0.791802 -0.306237 -0.52854 -0.791748 255 255 255 255 
-0.352273 -0.901911 -0.2438 -0.354831 -0.901913 -0.246267 255 255 255 255 
0.585718 -0.772822 0.238139 0.593001 -0.770233 0.234713 255 255 255 255 
-0.619801 0.165065 0.7656 -0.60437 0.163437 0.77976 255 255 255 255 
-0.789153 0.611531 -0.0266947 -0.781045 0.623055 -0.0420974 255 255 255 255 
-0.411815 0.595697 -0.687046 -0.414068 0.588657 -0.694285 255 255 255 255 
